Easting,Northing,Altitude,Group
100.60691952263005,52.71279948018491,3.0586000000000126,4
100.47575287870131,52.651652459055185,3.0519000000000176,4
100.35953405650798,52.61312057916075,3.0556000000000267,4
100.31577416288201,52.59421961102635,3.054000000000002,4
100.16890150040854,52.14356152061373,3.0555000000000234,4
99.90411738026887,51.65988725144416,3.051300000000026,4
99.84932883246802,51.647376264445484,3.052500000000009,4
99.80387633945793,51.63399098813534,3.0516000000000076,4
100.09651051019318,50.99217345006764,3.1015000000000157,4
99.59637431497686,51.21736676432192,3.051400000000001,4
99.55945396586321,51.204198501072824,3.0477000000000203,4
100.06246960139833,50.926826290786266,3.0597000000000207,4
99.94878817745484,50.91059390641749,3.062300000000022,4
99.5986056533875,50.854993854649365,3.0581000000000245,4
99.54140537360217,50.84575677476823,3.0586000000000126,4
99.36396669119131,50.80344433709979,3.0500000000000114,4
99.22583364427555,50.4363896176219,3.063900000000018,4
99.1534877185477,50.412314605899155,3.0526000000000124,4
99.11596307449508,50.056712767109275,3.0578000000000145,4
99.05778932990506,50.05523316375911,3.0603000000000122,4
99.01768159866333,50.045319077558815,3.0552000000000135,4
98.98300341679715,50.03554308600724,3.050600000000003,4
99.43896169215441,49.68582212086767,3.042500000000018,4
99.42318169039208,49.66540931444615,3.0286000000000115,4
98.9291901094839,49.67952695954591,3.0545000000000186,4
98.86069596046582,49.32091394625604,3.060500000000019,4
98.6727060751291,49.32725005503744,3.0555000000000234,4
98.54830858530477,48.96943868789822,3.0560000000000116,4
98.47073266631924,48.60170071199536,3.0533000000000072,4
98.28525659104344,48.23455364163965,3.048700000000025,4
98.23466978315264,48.239937499165535,3.048000000000002,4
98.18017646670341,48.2463337443769,3.047900000000027,4
98.1358513761079,48.24965336639434,3.046500000000009,4
97.98605517856777,47.88341378979385,3.0410000000000252,4
97.89654456893913,47.893366396427155,3.0374000000000194,4
97.92923953058198,47.49285714700818,3.0381000000000142,4
97.87615621904843,47.504847994074225,3.0386000000000024,4
97.6341550622601,47.16294522583485,3.044300000000021,4
97.59494058869313,46.751713055185974,3.0446000000000026,4
97.36385042499751,46.804758137091994,3.036900000000003,4
97.30053425207734,46.39513646252453,3.0413000000000068,4
97.20359064487275,46.42268798965961,3.0390000000000157,4
97.12636926327832,46.01048916019499,3.0523000000000025,4
97.07782681274693,46.02704249788076,3.0511000000000195,4
96.97913409618195,46.06233177240938,3.050600000000003,4
96.8748935230542,45.61386983003467,3.0460000000000207,4
96.76030246319715,45.14513318426907,3.0431000000000097,4
96.66471233707853,45.1805013762787,3.0389000000000124,4
96.42310948984232,44.761898225173354,3.0463000000000022,4
96.33705322805326,44.788614925928414,3.0379000000000076,4
96.25069923023693,44.247221139259636,3.0367000000000246,4
95.93741291982587,43.80900687724352,3.0423000000000116,4
95.37374851619825,42.717387648299336,3.032800000000009,4
95.18107941059861,42.05322119779885,3.0412000000000035,4
95.03196648322046,42.148374249227345,3.0343000000000018,4
94.77642862743232,41.45370341092348,3.044200000000018,4
91.89395999116823,51.94532806798816,3.2486000000000104,1
91.86354011285584,51.951224881224334,3.254000000000019,1
91.84623987867963,51.868515578098595,3.2520000000000095,1
91.82591333275195,51.96583238057792,3.251800000000003,1
91.81745606998447,51.87111875973642,3.2528000000000077,1
91.79945647355635,51.96849474404007,3.253200000000021,1
91.81482395040803,51.76098882872611,3.2335000000000207,1
91.78947616787627,51.87263064086437,3.2519000000000062,1
91.76984050206374,51.973300255835056,3.2574000000000183,1
91.78437581448816,51.76799667067826,3.238800000000026,1
91.75977542530745,51.880769239738584,3.2593999999999994,1
91.74341189966071,51.97485159151256,3.2571000000000083,1
91.76965683931485,51.675347291864455,3.249200000000002,1
91.7614298639819,51.78520104382187,3.241100000000017,1
91.73680121847428,51.89908463973552,3.2637,1
91.72526113223284,51.98661918193102,3.252200000000016,1
91.7474865380209,51.692571392282844,3.249800000000022,1
91.73505777458195,51.78453032113612,3.2357000000000085,1
91.71117652230896,51.89954467397183,3.260300000000001,1
91.69716820330359,51.99257517885417,3.257300000000015,1
91.71867447183467,51.69628560170531,3.25060000000002,1
91.69408397271764,51.90022170543671,3.259100000000018,1
91.71504064579494,51.595024173147976,3.2527000000000044,1
91.68010391073767,51.992141181603074,3.2545000000000073,1
91.6975906456355,51.70130811352283,3.255200000000002,1
91.68751708883792,51.79221519641578,3.240300000000019,1
91.68539641587995,51.60094071459025,3.2549000000000206,1
91.65364705165848,51.99480354692787,3.254700000000014,1
91.66875032277312,51.70613335445523,3.2561000000000035,1
91.64898326422554,51.903521647676826,3.256200000000007,1
91.66436910314951,51.60374116897583,3.2546000000000106,1
91.64394366031047,52.01012122165412,3.254000000000019,1
91.65755214507226,51.71918951906264,3.2533000000000243,1
91.64670293906238,51.810076873749495,3.2386000000000195,1
91.62836426356807,51.920785202644765,3.258100000000013,1
91.64139489550143,51.622056568972766,3.2571000000000083,1
91.62787965894677,51.72621708922088,3.2577,1
91.61941391602159,51.81494156923145,3.2402000000000157,1
91.630343652796,51.5072655249387,3.2423,1
91.60273956763558,51.921245235949755,3.255100000000027,1
91.61005808226764,51.633488801307976,3.265800000000013,1
91.59909584966954,51.72882027272135,3.2557000000000187,1
91.61286115716211,51.4012048933655,3.2427000000000135,1
91.58974143036176,51.821969139389694,3.2449000000000012,1
91.59662337624468,51.520860633812845,3.2535000000000025,1
91.5787791981129,51.91730060894042,3.2439999999999998,1
91.58213469281327,51.63277862500399,3.259100000000018,1
91.57100291980896,51.734776267781854,3.258800000000008,1
91.582441276405,51.40710170939565,3.243300000000005,1
91.56331282737665,51.8235204750672,3.2420000000000186,1
91.56697914609686,51.52677717618644,3.2545000000000073,1
91.55490218254272,51.63542126305401,3.257300000000015,1
91.56346399360336,51.29877956490964,3.2456999999999994,1
91.55052520288154,51.74648467916995,3.251100000000008,1
91.5571401193738,51.42535792849958,3.2442000000000064,1
91.54691115696914,51.827550320886075,3.2249000000000194,1
91.53115232579876,51.65371693763882,3.2590000000000146,1
91.53733067261055,51.319238116033375,3.249300000000005,1
91.52404008619487,51.750258072279394,3.2515000000000214,1
91.52660721167922,51.4356988593936,3.2497000000000185,1
91.51694337301888,51.20532137528062,3.2484000000000037,1
91.50308765238151,51.658561905846,3.2590000000000146,1
91.50613514205907,51.325115204788744,3.248500000000007,1
91.49697711714543,51.74623453896493,3.240300000000019,1
91.49543993850239,51.440464918501675,3.248800000000017,1
91.48577609867789,51.21008743532002,3.245900000000006,1
91.47421907261014,51.66449817363173,3.260700000000014,1
91.474911354715,51.33210332039744,3.25060000000002,1
91.4657957078889,51.44638146087527,3.2501000000000033,1
91.46300533483736,51.09833357017487,3.251100000000008,1
91.45288798434194,51.221480212174356,3.252100000000013,1
91.44793175300583,51.660494366660714,3.249900000000025,1
91.44288366101682,51.34018274024129,3.252900000000011,1
91.44127020100132,51.46465741004795,3.2497000000000185,1
91.43706981104333,51.11101492121816,3.244100000000003,1
91.4338471381925,51.57341985963285,3.249100000000027,1
91.4275585700525,51.240847462788224,3.2513000000000147,1
91.41835815366358,51.358458689413965,3.2508000000000266,1
91.41047731041908,50.996940365061164,3.2516000000000247,1
91.41070903697982,51.476109369657934,3.255800000000022,1
91.40418169600889,51.12240770086646,3.248800000000017,1
91.39469871239271,51.251129211857915,3.255000000000024,1
91.38871392281726,51.36437523178756,3.25060000000002,1
91.37592486827634,51.01273780222982,3.260300000000001,1
91.3752226983197,51.25396912172437,3.2538000000000125,1
91.3639439677354,50.87346467375755,3.2483000000000004,1
91.36929442267865,51.36499308235943,3.246500000000026,1
91.35578623053152,51.011113869957626,3.2530000000000143,1
91.34940584714059,51.13991429284215,3.253700000000009,1
91.34330803144258,51.2576044248417,3.25030000000001,1
91.32967409281991,50.87815182469785,3.245400000000018,1
91.33970670541748,51.36868757009506,3.2435000000000116,1
91.32120553194545,51.0280223377049,3.2619000000000256,1
91.30031807045452,50.75066601485014,3.2476000000000056,1
91.31878252408933,51.275880373083055,3.248500000000007,1
91.30015560425818,50.909641755744815,3.255200000000002,1
91.31606987537816,51.382539129815996,3.237400000000008,1
91.294324817718,51.04735013470054,3.261000000000024,1
91.29130134533625,51.16623020358384,3.252600000000001,1
91.27174477186054,50.775509502738714,3.2502000000000066,1
91.28916654968634,51.28068588767201,3.2456000000000245,1
91.26738051557913,50.916590420529246,3.252900000000011,1
91.26226886617951,51.056540582329035,3.2619000000000256,1
91.24037262238562,50.635743195191026,3.2476000000000056,1
91.25933016464114,51.17208756878972,3.25060000000002,1
91.23572579957545,50.78793440107256,3.2528000000000077,1
91.23377326363698,50.925741414539516,3.253399999999999,1
91.22940900793765,51.06682233233005,3.2642000000000166,1
91.20438190619461,50.64705706667155,3.2487000000000137,1
91.20125812699553,50.80039875488728,3.2559000000000253,1
91.19922082172707,50.94153885357082,3.261000000000024,1
91.17076757503673,50.5038984939456,3.247399999999999,1
91.19591478386428,51.07152921333909,3.260900000000021,1
91.1684759601485,50.65503785293549,3.2472000000000207,1
91.17672697757371,50.94096676912159,3.254000000000019,1
91.14569246943574,50.51326648518443,3.249300000000005,1
91.18150098016486,51.08895058557391,3.259900000000016,1
91.15070524590556,50.682379574514925,3.253600000000006,1
91.15085360757075,50.829133996739984,3.2564000000000135,1
91.12807011744007,50.687362633645535,3.252100000000013,1
91.12819022277836,50.835228086449206,3.2564000000000135,1
91.09073999570683,50.385129686445,3.2483000000000004,1
91.12798678595573,50.96529735159129,3.2509000000000015,1
91.09052102197893,50.546327482908964,3.2512000000000114,1
91.10477944498416,50.84019141737372,3.255000000000024,1
91.06497400999069,50.39114486519247,3.2476000000000056,1
91.03798872337211,50.23147867899388,3.247700000000009,1
91.10704424150754,50.96476472169161,3.244400000000013,1
91.06685593293514,50.56129007227719,3.257600000000025,1
91.06921821960714,50.71254779398441,3.2605000000000075,1
91.07122870639432,50.847120355814695,3.2533000000000243,1
91.02803810255136,50.40910518262535,3.252600000000001,1
90.99958628544118,50.24606645666063,3.249800000000022,1
91.03189517662395,50.56262441445142,3.2501000000000033,1
91.0341444372898,50.71832624915987,3.2557000000000187,1
90.97459594905376,50.252101364545524,3.2479000000000156,1
91.02314405632205,50.723605214618146,3.2580000000000098,1
90.96716299338732,50.26970028039068,3.2482000000000255,1
91.01743194065057,50.73457741178572,3.253200000000021,1
90.9553021916654,50.27829260472208,3.2523000000000195,1
91.11180558206979,51.69308033492416,3.2608000000000175,1
90.92371951544192,50.116285999305546,3.255500000000012,1
90.96111888054293,50.44631438981742,3.2543000000000006,1
90.9478480629623,50.44931211601943,3.253399999999999,1
90.87411462934688,49.930474342778325,3.2453000000000145,1
90.90431981615257,50.2992309210822,3.255100000000027,1
90.94222780084237,50.609260795637965,3.253900000000016,1
90.87127060908824,50.13385177589953,3.2554000000000087,1
90.91180083283689,50.46284804493189,3.255200000000002,1
90.88018990017008,50.30195246916264,3.2513000000000147,1
90.84533508261666,50.14653312880546,3.2586000000000013,1
90.79647331521846,49.74839663039893,3.238700000000023,1
90.8320360078942,50.15064188558608,3.2577,1
90.8758948862087,50.470828832127154,3.2520000000000095,1
90.79412238125224,49.96290407888591,3.2490000000000236,1
90.8299831750337,50.3229105155915,3.254700000000014,1
90.75565915519837,49.76625831332058,3.241400000000027,1
90.7995844592806,50.17538673710078,3.2567000000000235,1
90.76152954867575,49.99320407398045,3.2513000000000147,1
90.79913944029249,50.345472764223814,3.252900000000011,1
90.7206828588387,49.79872118681669,3.2443000000000097,1
90.7356787918834,50.0025523416698,3.2509000000000015,1
90.74796771677211,50.19075018540025,3.255000000000024,1
90.66179842047859,49.61156178172678,3.2468000000000075,1
90.7354160354007,50.19598969724029,3.2556000000000154,1
90.64769543800503,49.61676183808595,3.2469000000000108,1
90.6649335543625,49.82398525997996,3.2475000000000023,1
90.6817350985948,50.01785660907626,3.249100000000027,1
90.58673835499212,49.41954399459064,3.2516999999999996,1
90.6074308748357,49.64353147987276,3.2543000000000006,1
90.57873182650656,49.64280158188194,3.2471000000000174,1
90.56443104811478,49.65577884018421,3.2516999999999996,1
90.52051000576466,49.46010601706803,3.2512000000000114,1
90.57693049742375,49.8662169855088,3.2435000000000116,1
90.46687284565996,49.249733372591436,3.2597000000000094,1
90.56368793558795,49.86810368578881,3.2417000000000087,1
90.45282637595665,49.252711372449994,3.2577,1
90.43861036666203,49.26235554832965,3.259900000000016,1
90.4625467756996,49.48086679726839,3.249900000000025,1
90.40793616790324,49.2782516265288,3.2621000000000038,1
90.39308579172939,49.28232092875987,3.2612000000000023,1
90.42073091259226,49.507596985436976,3.2561000000000035,1
90.2784971462097,48.75243837758899,3.2453000000000145,1
90.36404766293708,49.29492337536067,3.261700000000019,1
90.3911714439746,49.510180447250605,3.2504000000000133,1
90.24699078232516,48.770536788739264,3.248000000000019,1
90.33357126056217,49.303042254410684,3.2590000000000146,1
90.26986617560033,49.06128462962806,3.256200000000007,1
90.20793843758292,48.81067823152989,3.2519000000000062,1
90.29632452724036,49.33322389237583,3.2590000000000146,1
90.13134538731538,48.52634643390775,3.249200000000002,1
90.22882596077397,49.08803454786539,3.2527000000000044,1
90.16074953391217,48.835048275999725,3.253900000000016,1
90.14293783903122,48.8334835274145,3.249200000000002,1
90.18402052205056,49.11024171486497,3.2545000000000073,1
89.99735421990044,48.24055484589189,3.2463000000000193,1
90.05248057865538,48.57548106089234,3.2564000000000135,1
89.96426829765551,48.259724834002554,3.2487000000000137,1
89.94844447390642,48.27155160997063,3.2504000000000133,1
90.00005991908256,48.59193581901491,3.2535000000000025,1
90.04720652871765,48.874406962655485,3.249300000000005,1
89.83541137655266,47.95516412239522,3.252400000000023,1
89.89513513573911,48.29243075568229,3.249300000000005,1
89.81026421976276,47.99788270983845,3.2590000000000146,1
89.94092544226442,48.62823127768934,3.2505000000000166,1
89.77499262872152,48.011438372544944,3.2580000000000098,1
89.83278503047768,48.33309142291546,3.247700000000009,1
89.73883236187976,48.02941842470318,3.2586000000000013,1
89.78125304542482,48.345121793448925,3.24290000000002,1
89.50488947052509,47.248580739833415,3.249500000000012,1
89.66967094258871,48.063235378824174,3.2597000000000094,1
89.44805367896333,47.28604641370475,3.2531000000000176,1
89.41183689632453,47.30624852515757,3.254400000000004,1
89.27902250259649,46.88263021595776,3.256200000000007,1
89.36114979512058,47.34609407093376,3.2543000000000006,1
89.3415042317938,47.355600158683956,3.2542000000000257,1
89.20110286970157,46.92511841002852,3.2577,1
89.04255350492895,46.445258234627545,3.2641000000000133,1
89.15948479028884,46.94407140649855,3.257300000000015,1
89.00228892953601,46.47202788665891,3.266300000000001,1
88.95914780336898,46.48983040265739,3.2652000000000214,1
88.91451188968495,46.50537140760571,3.262900000000002,1
85.77698535646778,48.1354442788288,3.3763000000000147,8
86.03362140688114,48.573329019360244,3.3651000000000124,8
85.64945241261739,48.17555900197476,3.3751000000000033,8
85.97969045932405,48.61865082848817,3.371600000000001,8
86.23768275300972,49.003206200897694,3.3633000000000095,8
86.21579501731321,49.00932003278285,3.3633000000000095,8
86.13109237363096,49.04385352600366,3.367800000000017,8
82.1905715498142,49.10484237130731,3.481200000000001,3
82.91491283173673,50.13495350629091,3.4676000000000045,3
82.78708463837393,50.15616107266396,3.4665999999999997,3
80.80185458762571,49.23406400159001,3.468500000000006,7
83.39340663864277,51.035408469848335,3.471700000000027,3
83.29216109658591,51.079527012072504,3.47320000000002,3
83.55404718662612,51.433052372187376,3.4628000000000156,3
83.49206447578035,51.45926972851157,3.4668000000000063,3
81.43395757128019,50.41191509831697,3.4627000000000123,7
83.38536113651935,51.504361214116216,3.464800000000025,3
81.25537309190258,50.44517286121845,3.4563000000000272,7
83.8048198518809,51.796300837770104,3.46520000000001,3
83.71302339143585,51.83510094229132,3.469300000000004,3
83.60809739900287,51.871343647129834,3.4697000000000173,3
83.95401064190082,52.15585415624082,3.461900000000014,3
83.86991417070385,52.197073578834534,3.4672000000000196,3
83.76268948987126,52.232146074064076,3.464400000000012,3
81.9401999632828,51.44203830882907,3.4679000000000144,7
84.06485551828519,52.5277732424438,3.4710000000000036,3
83.93080666917376,52.579951506108046,3.468800000000016,3
82.16730492573697,51.88139536045492,3.4605000000000246,7
82.00877435377333,51.91961009055376,3.456400000000002,7
84.26181573572103,52.80960737820715,3.4700000000000273,3
84.14828559570014,52.87898367270827,3.4708000000000254,3
84.40646835137159,53.10345220658928,3.462600000000009,3
84.3300436178688,53.148201970383525,3.4665999999999997,3
82.59317027381621,52.714918756857514,3.4639000000000237,7
82.49387163645588,52.74352236185223,3.459300000000013,7
84.49565426260233,53.411450878717005,3.4571000000000254,3
84.40989348303992,53.45707495510578,3.456700000000012,3
84.69529595237691,53.64888333249837,3.454100000000011,3
84.646358020138,53.680991168133914,3.455900000000014,3
82.66160605475307,53.1368996584788,3.459300000000013,7
82.61616630083881,53.15353201050311,3.457700000000017,7
84.57608197571244,53.72812079451978,3.459300000000013,3
84.49799292720854,53.77727521862835,3.4609000000000094,3
82.94701586477458,53.481017518788576,3.4728000000000065,7
84.75923722505104,53.97291620075703,3.461800000000011,3
84.71340189222246,54.005102939903736,3.4639000000000237,3
84.6566509574186,54.03923556767404,3.4625000000000057,3
84.93844495387748,54.18981753848493,3.464800000000025,3
83.0791706237942,53.83902581688017,3.4650000000000034,7
84.86467073659878,54.25242265872657,3.462100000000021,3
84.77831659745425,54.321378332562745,3.4676000000000045,3
85.07482242246624,54.41230010520667,3.452500000000015,3
83.27975478710141,54.13095780927688,3.459000000000003,7
83.20775792817585,54.184714172035456,3.457400000000007,7
84.96714291872922,54.526295070536435,3.4627000000000123,3
84.89902429515496,54.58015004452318,3.4642000000000053,3
85.20598087087274,54.65688489191234,3.455400000000026,3
85.11103807936888,54.72784562967718,3.453000000000003,3
83.3957056410145,54.48521878011525,3.460800000000006,7
85.03747440222651,54.81269104965031,3.4579000000000235,3
85.33305052714422,54.879130749963224,3.4493000000000222,3
85.28280009282753,54.93232839740813,3.4550000000000125,3
83.65852674469352,54.74093417171389,3.4654000000000167,7
85.18935209140182,55.00555064436048,3.4513000000000034,3
83.74569377466105,55.09779837168753,3.467800000000011,7
85.31300833018031,55.2399389129132,3.4498000000000104,3
85.29391240142286,55.25835296884179,3.450000000000017,3
85.27398431219626,55.278969356790185,3.4513000000000034,3
85.2658604956232,55.293215467594564,3.455400000000026,3
85.53940760379191,55.371324157342315,3.447900000000004,3
85.44464709726162,55.465636218898,3.4488000000000056,3
85.42627030645963,55.48629205767065,3.4499000000000137,3
83.81275042472407,55.4519276348874,3.461800000000011,7
85.58809012640268,55.684963249601424,3.454800000000006,3
85.4986744003836,55.78274648077786,3.4560000000000173,3
85.77906381851062,55.80544183123857,3.4506000000000085,3
85.76620133884717,55.82290266919881,3.452600000000018,3
85.74315513984766,55.87456867843866,3.4553000000000225,3
85.70645807008259,55.91365830041468,3.4539000000000044,3
85.68805302376859,55.93542516604066,3.4539000000000044,3
85.64974814478774,55.97669739089906,3.452600000000018,3
85.62238712178078,56.01491270028055,3.456400000000002,3
85.87492241361178,56.064693350344896,3.4545000000000243,3
85.82526258379221,56.15570542123169,3.4594000000000165,3
85.78770509827882,56.19810840021819,3.457000000000022,3
85.77788870455697,56.21787020005286,3.4612000000000194,3
85.93205228378065,56.38188252132386,3.4491000000000156,3
85.8595878178021,56.484543844126165,3.4516000000000133,3
84.34799351147376,56.65399771556258,3.440400000000011,9
86.10556608508341,56.51748153474182,3.450300000000027,3
86.06322616687976,56.59533879812807,3.447900000000004,3
84.5455751940608,56.911389232613146,3.4512,9
84.52708538796287,56.93648918904364,3.4531000000000063,9
84.49995042057708,56.965816273353994,3.45180000000002,9
86.21928009751718,56.74605823773891,3.44380000000001,3
86.18197414011229,56.839607988484204,3.449200000000019,3
86.1681947328616,56.862604239955544,3.449700000000007,3
86.1576026895782,56.88234631344676,3.451000000000022,3
86.1454310923582,56.90315996296704,3.4520000000000266,3
86.12694127962459,56.92825991474092,3.449700000000007,3
86.11316187283956,56.95125616714358,3.450000000000017,3
86.1073084914824,56.967783513478935,3.4534000000000162,3
86.34204758610576,56.98487091623247,3.4468000000000245,3
86.33303509629332,57.0035414127633,3.4487000000000023,3
86.31605280854274,57.06092037726194,3.447700000000026,3
84.87566599971615,57.48232822306454,3.459600000000023,9
86.23659198614769,57.19453268777579,3.4454000000000065,3
84.81576873385347,57.548621505498886,3.4528999999999996,9
86.4913156714756,57.18878165446222,3.4506000000000085,3
86.4696512328228,57.247153288684785,3.4473000000000127,3
86.46290917810984,57.26810502167791,3.4502000000000237,3
86.45151322940364,57.288938395679,3.4499000000000137,3
86.44006076920778,57.311993828974664,3.450300000000027,3
86.42628136184067,57.33499008137733,3.448900000000009,3
86.42195102199912,57.35266790911555,3.452600000000018,3
86.40257253649179,57.382192249409854,3.448900000000009,3
84.9819570860127,57.81966735981405,3.447900000000004,9
84.9617747043958,57.85028300713748,3.447700000000026,9
86.58143107336946,57.52126244921237,3.4446000000000083,3
86.57313772058114,57.54217472858727,3.4457000000000164,3
85.21625126851723,58.00684074591845,3.4514000000000067,9
86.54349074489437,57.60923732537776,3.446700000000021,3
85.1548154503107,58.10311207268387,3.4493000000000222,9
85.13302525947802,58.13591032195836,3.448200000000014,9
86.74304027075414,57.69769337121397,3.4388000000000147,3
85.40662598342169,58.27294298540801,3.456200000000024,9
86.67483133310452,57.8771734777838,3.443300000000022,3
86.66335061693098,57.90133993886411,3.441500000000019,3
86.6537730076816,57.94223101064563,3.4384000000000015,3
85.28936616750434,58.488975048065186,3.447900000000004,9
86.62353265739512,58.03262520954013,3.443000000000012,3
86.87250321474858,58.008939920924604,3.446600000000018,3
86.86453341401648,58.04764838702977,3.45150000000001,3
85.54734087281395,58.63005730509758,3.455900000000014,9
86.85525110026356,58.10744667425752,3.452200000000005,3
85.52608477068134,58.70289204176515,3.4571000000000254,9
85.46830115141347,58.80815022625029,3.452600000000018,9
86.81183745339513,58.22752302419394,3.451100000000025,3
86.80107587389648,58.253931267187,3.449700000000007,3
86.79272600915283,58.2770656067878,3.4490000000000123,3
87.01285348460078,58.31935161817819,3.438900000000018,3
87.01079357822891,58.33931068237871,3.4421000000000106,3
87.00402326649055,58.36137344315648,3.4423000000000172,3
86.99800034763757,58.38456696085632,3.442600000000027,3
86.95327140134759,58.58687916211784,3.4465000000000146,3
86.92635969235562,58.66846403758973,3.443300000000022,3
86.48799253220204,60.79854072071612,3.4449000000000183,12
103.47794733464252,58.722554757259786,3.043200000000013,10
103.04608370491769,57.75880273710936,3.0575000000000045,10
103.0134655307047,57.729067663662136,3.0537000000000205,10
102.79806706611998,57.59240282513201,3.0563000000000216,10
102.69895648711827,57.52206536475569,3.055000000000007,10
102.67719739628956,57.49260649085045,3.0478000000000236,10
102.53110950568225,56.8585299551487,3.054000000000002,10
102.42711894668173,56.79696235898882,3.0544000000000153,10
102.37051215977408,56.76439364627004,3.0549000000000035,10
102.18263659905642,56.15593619924039,3.0537000000000205,10
102.08071864349768,56.1044270535931,3.0545000000000186,10
101.95687203400303,56.03012521099299,3.047300000000007,10
102.47329364705365,55.86649242602289,3.0960000000000036,10
102.42877666570712,55.75529714860022,3.032400000000024,10
101.80316296813544,55.51258833706379,3.057900000000018,10
101.71081978315488,55.48133418336511,3.0574000000000012,10
101.67177032667678,55.460329519584775,3.05540000000002,10
101.41319947992451,54.51877325121313,3.057600000000008,4
101.22030930849724,54.076950415968895,3.0640000000000214,4
101.17962376691867,54.05923938471824,3.059100000000001,4
101.14120865636505,54.043809595517814,3.05540000000002,4
100.99942169175483,54.00351563934237,3.054000000000002,4
100.82297407486476,53.586569474078715,3.058400000000006,4
100.78839819412678,53.20658417325467,3.0594000000000108,4
100.67972248338629,53.20715530309826,3.064900000000023,4
100.63033523899503,53.1958934366703,3.0632000000000232,4
100.5590494859498,52.82498017139733,3.0705000000000098,4
100.4600771816913,52.81023364048451,3.0686000000000035,4
100.41132429125719,52.804546646773815,3.068700000000007,4
100.39436225173995,52.43390332907438,3.0648000000000195,4
100.34790804877412,52.429386551491916,3.064900000000023,4
100.63941292173695,52.10661182925105,3.0966000000000236,4
100.16145687899552,52.40574456844479,3.058700000000016,4
100.04865522985347,51.6835749335587,3.0645000000000095,4
99.60992191056721,51.325550839304924,3.0515000000000043,4
100.00882405519951,50.8998916586861,3.0426000000000215,4
99.58730419783387,50.963657659478486,3.06310000000002,4
99.49446496355813,50.98241955973208,3.0614000000000203,4
99.52428349398542,50.57294317241758,3.0515000000000043,4
99.46507978031877,50.58144309557974,3.0529000000000224,4
99.41917514742818,50.585834281519055,3.051700000000011,4
99.27267949772067,50.2118963804096,3.0448000000000093,4
99.17252030642703,50.24381307698786,3.0460000000000207,4
99.12813871284015,50.24935475084931,3.0444000000000244,4
98.96601700503379,49.87946641072631,3.0407000000000153,4
98.92243931745179,49.88391678407788,3.0378000000000043,4
98.77554800559301,49.52553329616785,3.0451000000000192,4
98.73978333163541,49.52795889507979,3.0412000000000035,4
98.78208430483937,49.08544756565243,3.0451000000000192,4
98.69585854141042,49.11883040331304,3.044700000000006,4
98.64427002577577,49.13308275863528,3.0444000000000244,4
98.5909889198374,49.15285080112517,3.046800000000019,4
98.55054208578076,49.156269061379135,3.0419000000000267,4
98.44273139094003,48.75663316436112,3.044700000000006,4
98.35601255507208,48.778885992243886,3.0405000000000086,4
98.22154715529177,48.389689637348056,3.0548,4
97.90073827677406,47.484350013546646,3.0427999999999997,4
97.75581451668404,47.567380322143435,3.0426000000000215,4
97.57337464229204,47.111370705999434,3.045300000000026,4
97.29297673236579,46.661763621494174,3.0381000000000142,4
97.16562641481869,46.11488012969494,3.0511000000000195,4
97.03879691369366,46.1883649379015,3.0423000000000116,4
96.60794160561636,45.03230682667345,3.0434000000000196,4
96.51253371918574,45.09102635085583,3.0400000000000205,4
96.32112085644621,44.40799209848046,3.0422000000000082,4
96.18082269653678,44.49225184042007,3.0334000000000003,4
96.05046584596857,43.69737224560231,3.052500000000009,4
95.91741554660257,43.801827784627676,3.043500000000023,4
93.08014391711913,54.3168364521116,3.2545000000000073,1
93.05052795540541,54.32164195738733,3.259900000000016,1
93.04606199241243,54.22258285712451,3.2533000000000243,1
93.02332371310331,54.32317356020212,3.2590000000000146,1
93.01480996003374,54.23068199492991,3.2634000000000185,1
92.9960912137758,54.32581619173288,3.2600000000000193,1
92.9967439675238,54.239116496406496,3.2528000000000077,1
92.97478133859113,54.33972692769021,3.2593000000000245,1
92.99000756954774,54.13777615595609,3.2464000000000226,1
92.96712800557725,54.24392200354487,3.256800000000027,1
92.94993230153341,54.340206681750715,3.2557000000000187,1
92.96125202765688,54.13926830235869,3.2453000000000145,1
92.93667987990193,54.250929838977754,3.26400000000001,1
92.94335557729937,54.14103663433343,3.2438000000000216,1
92.91964385076426,54.249384810216725,3.2593999999999994,1
92.90239163325168,54.34789154864848,3.262200000000007,1
92.9286083704792,54.049498280510306,3.2557000000000187,1
92.91379612905439,54.143620083108544,3.2443000000000097,1
92.8907470239792,54.25643210299313,3.265500000000003,1
92.8826048001647,54.36295276694,3.2621000000000038,1
92.9065228451509,54.06338929012418,3.2531000000000176,1
92.89323364570737,54.158661575987935,3.2423,1
92.87093193351757,54.27260435000062,3.2653000000000247,1
92.89516080566682,53.96081955637783,3.251800000000003,1
92.85698011377826,54.3634127965197,3.258800000000008,1
92.87687862536404,54.06930582411587,3.2554000000000087,1
92.86439333297312,54.16348680946976,3.2449000000000012,1
92.84536376094911,54.27084232214838,3.2587000000000046,1
92.86227270239033,53.97221232764423,3.261400000000009,1
92.83132717048284,54.36498385295272,3.2574000000000183,1
92.84640224208124,54.077424691058695,3.2626000000000204,1
92.83635692647658,54.167220742441714,3.2461000000000126,1
92.85116497555282,53.85964333638549,3.2501000000000033,1
92.8181312616216,54.27348495274782,3.2585000000000264,1
92.83271325344685,53.97479577641934,3.258800000000008,1
92.81761844281573,54.08002786710858,3.260300000000001,1
92.80751661362592,54.17204597778618,3.247399999999999,1
92.81994119891897,53.866631446406245,3.2535000000000025,1
92.79250657488592,54.27394498232752,3.2554000000000087,1
92.80304077616893,53.98182334098965,3.262800000000027,1
92.79544814676046,54.09725196287036,3.261400000000009,1
92.81076482066419,53.76967603992671,3.2497000000000185,1
92.7877580372151,54.18599616829306,3.244100000000003,1
92.79782741609961,53.88163348380476,3.249500000000012,1
92.77194409223739,54.28898647520691,3.252200000000016,1
92.77848701761104,54.001210312359035,3.265100000000018,1
92.76824390364345,54.09878356568515,3.258100000000013,1
92.7820092770271,53.77116818726063,3.245500000000021,1
92.7597781450022,54.18750804383308,3.2406000000000006,1
92.75047886744142,54.00383321661502,3.2630000000000052,1
92.76217160490341,53.666159397922456,3.252600000000001,1
92.73940359055996,54.10360880102962,3.2595000000000027,1
92.75000985059887,53.778136571869254,3.247399999999999,1
92.73082480428275,54.19677739404142,3.249100000000027,1
92.73535160627216,53.89672073442489,3.2571000000000083,1
92.72083464742173,54.009749754332006,3.265800000000013,1
92.73108911234885,53.66759236622602,3.2483000000000004,1
92.71222760446835,54.104029374197125,3.2546000000000106,1
92.71878607373219,53.78512468189001,3.249500000000012,1
92.70576389995404,53.90041521191597,3.2548000000000172,1
92.71225314447656,53.553715073503554,3.2478000000000122,1
92.69285475462675,54.011261629872024,3.2608000000000175,1
92.69903317140415,53.676782806403935,3.2515000000000214,1
92.69246902805753,54.11797956563532,3.2512000000000114,1
92.6941475433996,53.8078447394073,3.2575000000000216,1
92.68772764166351,53.571991017088294,3.2494000000000085,1
92.67146010813303,54.0285054538399,3.263500000000022,1
92.67450766905677,53.69505875092,3.253399999999999,1
92.66455983673222,53.811539217829704,3.255500000000012,1
92.66584558854811,53.45581275969744,3.2507000000000232,1
92.65400589734782,53.92133378889412,3.2553000000000054,1
92.65328823775053,53.583344333805144,3.2538000000000125,1
92.64339544414543,54.03335041645914,3.2637,1
92.64322737779003,53.70426891744137,3.2571000000000083,1
92.63405519549269,53.82076911441982,3.259600000000006,1
92.6338744177483,53.46167011465877,3.2494000000000085,1
92.62510906951502,53.92838108167052,3.256800000000027,1
92.6212605535984,53.591423746198416,3.2557000000000187,1
92.61125620803796,53.710126273334026,3.256200000000007,1
92.6037200964056,53.8233328377828,3.2561000000000035,1
92.59943501336966,53.47302343323827,3.253600000000006,1
92.59632526990026,53.93098425865173,3.253700000000009,1
92.59014980401844,53.59396774414927,3.2519000000000062,1
92.5808080806164,53.717134112492204,3.2572000000000116,1
92.57292731839698,53.35561578255147,3.2583000000000197,1
92.58071763662156,53.84275926463306,3.2560000000000002,1
92.56467911007348,53.61889013275504,3.2571000000000083,1
92.5539500612067,53.24729363434017,3.2624000000000137,1
92.55786213453393,53.734338480979204,3.255500000000012,1
92.54593358153943,53.379387688823044,3.2613000000000056,1
92.54940908926073,53.853080462664366,3.2619000000000256,1
92.53883403656073,53.505946326069534,3.2601000000000226,1
92.53354010358453,53.62254515849054,3.2535000000000025,1
92.52142929588445,53.24424303509295,3.2512000000000114,1
92.52675138576888,53.736882478930056,3.25060000000002,1
92.51146592001896,53.39185203425586,3.2656000000000063,1
92.50761025864631,53.51293443609029,3.2593999999999994,1
92.49187551380601,53.124534418806434,3.261700000000019,1
92.50248586817179,53.62286709807813,3.247000000000014,1
92.4852973066736,53.26111204084009,3.2593000000000245,1
92.49877149169333,53.7383943554014,3.244700000000023,1
92.4784930436872,53.40657789167017,3.273300000000006,1
92.45688651432283,53.12697977852076,3.2559000000000253,1
92.47114906297065,53.63429932296276,3.2512000000000114,1
92.45080138754565,53.27468741685152,3.265000000000015,1
92.44580273726024,53.41019346378744,3.2682000000000073,1
92.42795438377652,52.98282853234559,3.249800000000022,1
92.44953402993269,53.538139309734106,3.256800000000027,1
92.42820019321516,53.15626737475395,3.2626000000000204,1
92.44748398137745,53.64926190953702,3.245200000000011,1
92.42389242188074,53.29512623697519,3.26400000000001,1
92.41966942162253,53.430652011185884,3.2675000000000125,1
92.39780153392348,53.00874358881265,3.2520000000000095,1
92.39381730160676,53.16539863683283,3.262800000000027,1
92.38950953120366,53.30425749719143,3.2644000000000233,1
92.3631855417043,52.874453510157764,3.2586000000000013,1
92.38766999403015,53.43762039486319,3.2670000000000243,1
92.36172605783213,53.02339053712785,3.257000000000005,1
92.3873407873325,53.5421162750572,3.244400000000013,1
92.3579113681335,53.17337941378355,3.261400000000009,1
92.35762313078158,53.30678176879883,3.2583000000000197,1
92.32830956869293,52.872454756870866,3.248000000000019,1
92.3540910105221,53.44566035550088,3.2665000000000077,1
92.32498796004802,53.033573646098375,3.2569000000000017,1
92.3250797757646,53.18255012854934,3.260700000000014,1
92.29070400353521,52.73364165518433,3.256800000000027,1
92.32315546926111,53.319246114231646,3.261700000000019,1
92.28987888630945,52.888153553940356,3.2527000000000044,1
92.28971639077645,53.04712929390371,3.2598000000000127,1
92.29736690386198,53.204080251045525,3.259900000000016,1
92.25997330236714,52.75175978150219,3.2512000000000114,1
92.29705041076522,53.338593632914126,3.2586000000000013,1
92.2605582003016,52.911866278387606,3.2527000000000044,1
92.28541566827334,53.338297724723816,3.255100000000027,1
92.24708958854899,52.92264120467007,3.258100000000013,1
92.24939532706048,53.07612098194659,3.2621000000000038,1
92.25195537786931,53.21960150357336,3.262800000000027,1
92.21048572682776,52.774959600530565,3.257600000000025,1
92.18151261878666,52.60190188232809,3.247300000000024,1
92.21346113656182,53.08521279040724,3.261099999999999,1
92.1380691913655,52.448487591929734,3.2553000000000054,1
92.1728589507984,52.78956709895283,3.2600000000000193,1
92.19079775852151,53.091306873597205,3.259900000000016,1
92.1295002955012,52.63281972054392,3.2582000000000164,1
92.17913475865498,53.09212199412286,3.2579000000000065,1
92.11789380852133,52.631412784568965,3.2538000000000125,1
92.15247305622324,52.95025198813528,3.2575000000000216,1
92.08461859531235,52.47492186166346,3.2618000000000222,1
92.14006266358774,52.949936353601515,3.254000000000019,1
92.07887822226621,52.48700508661568,3.257300000000015,1
92.11696838121861,52.82038630079478,3.258400000000023,1
92.0433481154032,52.29710439313203,3.248500000000007,1
92.07360972475726,52.66363892238587,3.256500000000017,1
92.11148937093094,52.97477983497083,3.2548000000000172,1
92.03964363178238,52.50379518792033,3.2605000000000075,1
92.08020202582702,52.83168043848127,3.258800000000008,1
92.00330961728469,52.314985795877874,3.2513000000000147,1
92.03537684015464,52.67156052123755,3.252900000000011,1
92.02348778443411,52.68126387242228,3.2572000000000116,1
91.95149086427409,52.12467083428055,3.245400000000018,1
91.98791387723759,52.52360273897648,3.2620000000000005,1
91.94994379149284,52.33808698039502,3.2546000000000106,1
91.93655994976871,52.34552881959826,3.2560000000000002,1
91.97350712888874,52.69333367794752,3.2533000000000243,1
91.89732113061473,52.14886332023889,3.2482000000000255,1
91.90987703716382,52.35707941185683,3.257800000000003,1
91.93044375034515,52.555493517778814,3.2595000000000027,1
91.84519154706504,51.97076967265457,3.2489000000000203,1
91.88994891627226,52.377695778384805,3.256200000000007,1
91.79847879323643,51.762796617113054,3.2508000000000266,1
91.9038738659583,52.56259999610484,3.2580000000000098,1
91.8168725630967,51.98561389837414,3.2512000000000114,1
91.80274132802151,51.991924981586635,3.252400000000023,1
91.8200641637668,52.19581532198936,3.25060000000002,1
91.83905132464133,52.395301001146436,3.255800000000022,1
91.74120645830408,51.78691019676626,3.2520000000000095,1
91.79343776451424,52.205143857747316,3.2502000000000066,1
91.68845804245211,51.57211314979941,3.2590000000000146,1
91.74765466013923,52.02165288571268,3.257800000000003,1
91.69789581838995,51.81137886364013,3.25630000000001,1
91.75270838744473,52.2196724480018,3.2502000000000066,1
91.64440000825562,51.5954510634765,3.2620000000000005,1
91.73857715306804,52.22598353307694,3.25060000000002,1
91.62871747324243,51.60172269213945,3.2619000000000256,1
91.61472752166446,51.602478633634746,3.2590000000000146,1
91.68464195507113,52.05784969218075,3.2559000000000253,1
91.56030205637217,51.36206874810159,3.2516000000000247,1
91.59141423238907,51.63412637915462,3.263200000000012,1
91.65577337681316,52.063785961829126,3.252200000000016,1
91.52957135101315,51.380186879076064,3.2543000000000006,1
91.60193848633207,51.861190505325794,3.254400000000004,1
91.46269451023545,51.11055488605052,3.2482000000000255,1
91.54729968565516,51.65968635119498,3.267700000000019,1
91.53319670690689,51.66488640662283,3.266900000000021,1
91.46842076536268,51.40420182514936,3.2533000000000243,1
91.50122552830726,51.6707437671721,3.2630000000000052,1
91.43780308740679,51.417875841259956,3.2535000000000025,1
91.47365393675864,51.68671874888241,3.2657000000000096,1
91.30978976539336,50.866528634913266,3.25030000000001,1
91.40707238262985,51.43599397223443,3.2567000000000235,1
91.27736647496931,50.89016245584935,3.2546000000000106,1
91.38384386431426,51.46430863440037,3.258100000000013,1
91.19903994805645,50.58243985846639,3.2464000000000226,1
91.3128344588913,51.20457726716995,3.2554000000000087,1
91.35198571183719,51.465721880085766,3.2516000000000247,1
91.16592577693518,50.60272086691111,3.248500000000007,1
91.21723030717112,50.935326404869556,3.2559000000000253,1
91.13140159018803,50.61740727815777,3.248100000000022,1
91.24708648736123,51.226251794956625,3.2520000000000095,1
91.03936766425613,50.299330338835716,3.2545000000000073,1
91.1686596556101,50.95299081504345,3.2542000000000257,1
91.00467393593863,50.32068292517215,3.256500000000017,1
91.13718155643437,50.96997819188982,3.255500000000012,1
91.04500635387376,50.657456395216286,3.248500000000007,1
91.1034895349294,50.982462272048,3.254700000000014,1
90.93623167008627,50.35674164630473,3.258400000000023,1
90.98472890222911,50.70817548967898,3.252100000000013,1
90.88646151486319,50.391051763668656,3.25630000000001,1
90.67058487969916,49.601779519580305,3.2483000000000004,1
90.63500247267075,49.62755649257451,3.2516000000000247,1
90.81948578031734,50.43048302922398,3.259900000000016,1
90.47485821088776,49.179896380752325,3.247000000000014,1
90.55647675227374,49.6633587712422,3.2507000000000232,1
90.53680293750949,49.673975883983076,3.2513000000000147,1
90.39659951790236,49.235716903582215,3.2528000000000077,1
90.38431486662012,49.26097466144711,3.254000000000019,1
90.22294563031755,48.76992525346577,3.2572000000000116,1
90.30334916722495,49.30116187594831,3.254000000000019,1
90.12050050054677,48.830689390189946,3.259900000000016,1
90.07652722368948,48.85069422889501,3.2595000000000027,1
90.03255394718144,48.87069906760007,3.2586000000000013,1
89.61008824850433,55.71610049344599,3.3588000000000022,11
89.58495665306691,55.72769054956734,3.3511000000000024,11
83.51619438268244,51.45654815249145,3.4750000000000227,3
89.57212241890375,55.744040350429714,3.356200000000001,11
89.65638280613348,55.81844689976424,3.349800000000016,11
83.38833795825485,51.47886673267931,3.4783000000000186,3
89.64435247750953,55.8337053982541,3.354600000000005,11
89.52666713029612,55.791801183484495,3.3488000000000113,11
89.6240852966439,55.86765411589295,3.3525000000000205,11
89.7115047913976,55.93991751689464,3.352400000000017,11
89.61125106271356,55.88400391675532,3.3577000000000226,11
89.70025011175312,55.95519574172795,3.3569000000000244,11
89.79160436301026,56.02533572074026,3.3626000000000147,11
89.48534439643845,55.82966139074415,3.3514000000000124,11
89.58586515951902,55.90559323132038,3.357500000000016,11
89.67641550698318,55.97682451084256,3.358000000000004,11
89.76857366377953,56.04587318561971,3.363100000000003,11
83.63816996267997,52.06221723090857,3.4775000000000205,3
89.83835101954173,56.10990566853434,3.348000000000013,11
89.56200229842216,55.92833302728832,3.359000000000009,11
89.65180525323376,55.998433550819755,3.3574000000000126,11
89.75140907964669,56.07990081328899,3.3618000000000166,11
89.63946410350036,56.02591336611658,3.355400000000003,11
89.82098863937426,56.151710495352745,3.3540000000000134,11
84.08036850974895,52.52816776651889,3.4665999999999997,3
89.62277988018468,56.041053503751755,3.3548000000000116,11
89.80898656742647,56.16585796419531,3.3573000000000093,11
83.99381931987591,52.54375462140888,3.466500000000025,3
89.87884869100526,56.226557361893356,3.3407000000000266,11
89.61077780858614,56.05520097352564,3.358300000000014,11
89.70526291220449,56.1243088291958,3.363700000000023,11
89.79132889944594,56.18875557649881,3.3623000000000047,11
89.86121927935164,56.24834394454956,3.345400000000012,11
89.68453090451658,56.14601650554687,3.366000000000014,11
89.77059689164162,56.21046325098723,3.3643000000000143,11
89.83893597323913,56.270012164488435,3.344300000000004,11
82.05562230059877,51.633970704860985,3.475999999999999,7
89.94026063021738,56.344852711074054,3.3588000000000022,11
89.6642354677897,56.181076251901686,3.363200000000006,11
89.74877841304988,56.24437251407653,3.357800000000026,11
89.82639702735469,56.30526918172836,3.3476,11
81.86416261305567,51.65467179287225,3.4715000000000202,7
89.73367374495137,56.25844107568264,3.356800000000021,11
89.809741060948,56.319298289716244,3.3452000000000055,11
89.91065740352497,56.37967573385686,3.3633000000000095,11
89.98448253865354,56.43714067991823,3.35420000000002,11
89.70593263884075,56.28108223900199,3.3525000000000205,11
89.78898079693317,56.342116991989315,3.3459000000000003,11
89.96940612711478,56.45009821280837,3.350900000000024,11
89.78005306527484,56.35745439771563,3.352600000000024,11
84.52913296117913,53.43787249363959,3.4723000000000184,3
89.951776715694,56.47188479453325,3.3540000000000134,11
89.86713347223122,56.443050146102905,3.3611000000000217,11
84.46224206849001,53.47397074010223,3.4739000000000146,3
89.75415854598396,56.399042228236794,3.3478000000000065,11
84.38327985187061,53.49642102513462,3.474700000000013,3
82.12651543144602,52.29503975901753,3.4700000000000273,7
89.9359656337183,56.51372907496989,3.3589000000000055,11
89.82971724227536,56.47989795729518,3.358000000000004,11
89.91988752107136,56.53555511124432,3.36190000000002,11
84.75784823030699,53.813901010900736,3.462200000000024,3
89.80588263878599,56.50152672454715,3.3543000000000234,11
89.87936869473197,56.57232401520014,3.3540000000000134,11
84.58481914224103,53.87287014722824,3.466000000000008,3
82.5047972635366,52.83274000044912,3.4642000000000053,7
89.86527845112141,56.60754157602787,3.3503000000000043,11
84.90527431224473,54.212320636957884,3.462900000000019,3
84.80652529024519,54.24983215983957,3.464700000000022,3
85.06535231717862,54.57103912718594,3.4607000000000028,3
84.96421984035987,54.61071352567524,3.4610000000000127,3
84.89841541834176,54.63461017794907,3.4607000000000028,3
83.08184939192142,53.85577015206218,3.4680000000000177,7
85.25948961346876,54.90283013507724,3.4653000000000134,3
85.17381361464504,54.945121116004884,3.4687000000000126,3
85.10177574527916,54.969970983453095,3.4656000000000233,3
83.36281304364093,54.28315600566566,3.462299999999999,7
83.25814139167778,54.30939945578575,3.460000000000008,7
85.47107400745153,55.18948322720826,3.471400000000017,3
85.38387496815994,55.23062372300774,3.4718000000000018,3
85.29946771380492,55.28406443912536,3.4715000000000202,3
85.5309391815681,55.52119467500597,3.4630000000000223,3
85.39133230270818,55.608807465061545,3.463600000000014,3
83.78649237507489,55.111065172590315,3.4651000000000067,7
85.7271956045879,55.76965854689479,3.455900000000014,3
83.63865142897703,55.15622219629586,3.4591000000000065,7
85.64916308224201,55.816590898670256,3.458200000000005,3
85.85581374343019,56.05308989994228,3.4568000000000154,3
85.80535278026946,56.08404724486172,3.457400000000007,3
85.75948920066003,56.117345003411174,3.461500000000001,3
85.6822040756233,56.16540810931474,3.4624000000000024,3
85.96874935249798,56.34279290307313,3.4628000000000156,3
85.8677144064568,56.40915170311928,3.464100000000002,3
86.09743949351832,56.592873675748706,3.4664000000000215,3
86.02751527994405,56.65668844431639,3.4653000000000134,3
85.95945318019949,56.70832135062665,3.467800000000011,3
86.23342127958313,56.83091067522764,3.462900000000019,3
84.47789974347688,56.52055655885488,3.461100000000016,9
84.4038867634954,56.56203241366893,3.4612000000000194,9
86.13850676291622,56.90076036658138,3.462100000000021,3
86.08257249044254,56.96381918247789,3.464800000000025,3
84.67027516651433,56.83006779756397,3.464800000000025,9
84.62702110200189,56.85231445822865,3.462200000000024,9
86.27238764008507,57.12984995730221,3.4540000000000077,3
86.20969857426826,57.18384300265461,3.4563000000000272,3
86.5282897404395,57.26087381783873,3.455600000000004,3
86.0725854281336,57.32599481660873,3.463600000000014,3
84.67223097314127,57.241464043967426,3.4631000000000256,9
86.58310813317075,57.546875287778676,3.4531000000000063,3
86.54258933407255,57.58364421315491,3.452200000000005,3
84.96652995015029,57.48019208665937,3.477600000000024,9
84.92324763303623,57.503549771383405,3.473300000000023,9
86.46307477948721,57.658332544378936,3.4528000000000247,3
84.84128038201015,57.552605560049415,3.467800000000011,9
86.42792901245411,57.6974616125226,3.4566000000000088,3
86.72493052273057,57.73836745042354,3.4527000000000214,3
86.70813328726217,57.757951711304486,3.4542000000000144,3
86.67661146004684,57.80717866867781,3.453800000000001,3
86.61455676599871,57.86674657929689,3.452600000000018,3
86.59620823361911,57.88629138749093,3.4532000000000096,3
85.03444691107143,57.83100800681859,3.4715000000000202,9
86.56267027673312,57.92323784995824,3.455100000000016,3
84.92542946443427,57.906057788059115,3.4658000000000015,9
86.80177788529545,58.01269995048642,3.454800000000006,3
